# .PCD v0.7 - Point Cloud Data file format
VERSION 0.7
FIELDS x y z rgb
SIZE 4 4 4 4
TYPE F F F F
COUNT 1 1 1 1
WIDTH 179
HEIGHT 1
VIEWPOINT 0 0 0 1 0 0 0
POINTS 179
DATA ascii
0.40256804 0.48476371 0.5084343 0
0.50136143 0.48577577 0.60382324 0
0.27361864 0.55912328 0.78340542 0
0.4090414 0.87698478 0.52637327 0
0.48558894 0.95463216 0.34231707 0
0.28106824 0.022533011 0.67902553 0
0.39337301 0.022717562 0.62739223 0
0.34122714 0.089311622 0.56903714 0
0.40405869 0.020327933 0.47137904 0
0.44942132 0.091133103 0.62627906 0
0.51204711 0.019845076 0.42762342 0
0.64217848 0.020043911 0.606071 0
0.76748025 0.090714164 0.5499422 0
0.14826542 0.13568421 0.68799502 0
0.22486438 0.16590801 0.85186452 0
0.73460019 0.15061499 0.66780835 0
0.093912333 0.20365943 0.66331291 0
0.2245055 0.20283562 0.36252517 0
0.70053929 0.21419795 0.70595539 0
0.88985342 0.2572116 0.57351112 0
0.81613165 0.21440387 0.56229395 0
0.16331893 0.27146778 0.75645417 0
0.15319791 0.27071148 0.59035838 0
0.10552277 0.3392086 0.71269852 0
0.23046443 0.33858362 0.40405446 0
0.28111967 0.26957169 0.40516761 0
0.66596401 0.28332365 0.48933938 0
0.16665789 0.40709516 0.71269852 0
0.30536819 0.41896161 0.5331164 0
0.36465377 0.35042891 0.51179516 0
0.44048229 0.41762298 0.59821469 0
0.40575388 0.41992754 0.63860941 0
0.5506289 0.41740286 0.59485382 0
0.54487574 0.418358 0.55107677 0
0.59712332 0.35058153 0.6139273 0
0.75720495 0.37437853 0.67902553 0
0.22666247 0.47568095 0.8754335 0
0.3541739 0.48706827 0.68799502 0
0.46961188 0.48733091 0.79350942 0
0.68820989 0.44217283 0.52189922 0
0.77996403 0.49440414 0.67677784 0
0.15011495 0.54177427 0.89114612 0
0.66843086 0.58559394 0.59485382 0
0.76624686 0.58545196 0.67789102 0
0.72350419 0.51767206 0.65096116 0
0.84469533 0.56283015 0.72055489 0
0.053994201 0.6119476 0.84625596 0
0.20154063 0.60973191 0.85858631 0
0.71179086 0.6533916 0.62739223 0
0.81546408 0.65392792 0.75422788 0
0.0017466479 0.67988724 0.81258297 0
0 0.67968833 0.86308175 0
0.095914975 0.67883629 0.7138117 0
0.0070380354 0.74944621 0.59821469 0
0.043051317 0.7467404 0.74412382 0
0.050037909 0.7466411 0.72727662 0
0.1011047 0.67926228 0.71494627 0
0.16265015 0.74656999 0.70034677 0
0.85255522 0.7152667 0.79798347 0
0.091035143 0.81431097 0.63638312 0
0.069509484 0.81670058 0.67453015 0
0.21207318 0.81412619 0.711564 0
0.78998214 0.78290462 0.72391576 0
0.71389639 0.7896049 0.75870186 0
0.90762854 0.78330588 0.76655823 0
0.14975607 0.88075578 0.606071 0
0.25635672 0.88043624 0.58811063 0
0.35905495 0.87972593 0.34906024 0
0.52201378 0.87623918 0.68013871 0
0.83267456 0.85515136 0.7138117 0
0.17703488 0.95324045 0.52975553 0
0.74035454 0.92004806 0.45680097 0
0.41854632 0.88043261 0.74523699 0
0.53686029 0 0.2110074 0
0.38571766 0.063920304 0.16275635 0
0.27654728 0.063813746 0.18407758 0
0.47526339 0.070869088 0.43323201 0
0.5803746 0.070226438 0.39955902 0
0.68471658 0.072456278 0.45230553 0
0.064782754 0.12862526 0.099905811 0
0.65039849 0.14446865 0.62627906 0
0.84849727 0.14442611 0.5061866 0
0.74816304 0.14045277 0.49272168 0
0.10444366 0.3143357 0.59371924 0
0.90562588 0.30192947 0.52862096 0
0.84623617 0.37723696 0.3524211 0
0.40945297 0.43748584 0.48597851 0
0.52951479 0.43445706 0.54097271 0
0.799743 0.46868965 0.42873657 0
0.3650139 0.50095165 0.48148307 0
0.46149474 0.50180727 0.41191077 0
0.57292622 0.5024181 0.49944341 0
0.69699454 0.50411522 0.71942031 0
0.86791617 0.54048538 0.52414691 0
0.93290472 0.59207416 0.48822623 0
0.89206302 0.656708 0.47923535 0
0.93814588 0.72405487 0.61279273 0
0.98916 0.65766674 0.51404291 0
1 0.65681803 0.48933938 0
0.069816917 0.78868532 0.48373079 0
0.90505999 0.78789699 0.46016183 0
0.98823524 0.7899031 0.58699745 0
0.1216027 0.85433465 0.49608254 0
0.13686076 0.85272616 0.5084343 0
0.22830746 0.85395133 0.41976708 0
0.25902936 0.86778498 0.49047396 0
0.57045937 0.88391238 0.64199167 0
0.86231738 0.85215813 0.32549128 0
0.17426181 0.91895813 0.42648885 0
0.30711484 0.93249696 0.34006935 0
0.4216795 0.93226987 0.19754249 0
0.78654027 0.93169802 0.711564 0
0.50053954 1 0.32660446 0
0.15396836 0.24503253 0.45455325 0
0.82846105 0.2166409 0.61504048 0
0.17831977 0.29844978 0.42873657 0
0.2871815 0.29831126 0.4388406 0
0.71780121 0.30548733 0.466905 0
0.23138919 0.36468521 0.38384637 0
0.28671971 0.42969894 0.37374234 0
0.67156404 0.37074617 0.51965147 0
0.76979154 0.37122193 0.52637327 0
0.22671391 0.49742571 0.46016183 0
0.1689692 0.56469786 0.49833027 0
0.26853302 0.56336641 0.5746457 0
0.12463423 0.62099117 0.54882902 0
0.71163654 0.60570168 0.55218995 0
0.82111436 0.60535038 0.50729972 0
0.76999736 0.67073703 0.43547973 0
0.12350368 0.72325951 0.51404291 0
0.17718922 0.78785443 0.46240956 0
0.72196209 0.038674597 0.5746457 0
0.65486801 0.047931314 0.71942031 0
0.75905448 0.058416706 0.52975553 0
0.73855644 0.14603457 0.711564 0
0.84222966 0.14566886 0.62064904 0
0.67474991 0.21075732 0.66780835 0
0.86313921 0.19728228 0.66106522 0
0.73203164 0.27418756 0.55332446 0
0.90988964 0.26207602 0.57689345 0
0.59049559 0.47320965 0.2581453 0
0.54328221 0.4552145 0.26936251 0
0.25455862 0.50874549 0.23232864 0
0.33085012 0.56048667 0.44444922 0
0.69314116 0.58033174 0.52637327 0
0.79440022 0.58036369 0.41415849 0
0.88826108 0.58122295 0.60382324 0
0.7443096 0.64868683 0.45904869 0
0.92196304 0.65084219 0.46465728 0
0.89190871 0.76537824 0.65209574 0
0.94158775 0.73945087 0.6969859 0
0.76121265 0.83206457 0.70145994 0
0.91199636 0.84806776 0.62403136 0
0.36773676 0.90956998 0.97756559 0
0.81387055 0.91432446 0.82380015 0
0.83971262 0.90030605 0.78676629 0
0.36023572 0.98471045 0.9438926 0
0.34636542 0.044018403 0.36252517 0
0.46935466 0.045307398 0.62178361 0
0.26493683 0.081776917 0.47362676 0
0.29730248 0.14989066 0.58250201 0
0.31107113 0.33350617 0.31763497 0
0.39373192 0.43643484 0.26488847 0
0.37338823 0.40052626 0.30977866 0
0.10084748 0.65499669 0.94164491 0
0.76224029 0.76318735 0.75534099 0
0.63986593 0.84015304 0.79911804 0
0.66067261 0.45669535 0.68013871 0
0.34004638 0.17166726 0.79350942 0
0.27084434 0.26786375 0.49047396 0
0.2387359 0.044313114 0.40630218 0
0.09447699 0.34094849 0.35017338 0
0.19522159 0.34041241 0.33670849 0
0.19090641 0.42174193 0.0033822837 0
0.1927045 0.55344558 0 0
0.24762347 0.58936137 0.54208589 0
0.47279772 0.8778618 0.81707841 0
0.53809369 0.97273755 1 0
0.70588213 0.69568092 0.63524854 0
